# .PCD v0.7 - Point Cloud Data file format
VERSION 0.7
FIELDS x y z
SIZE 4 4 4
TYPE F F F
COUNT 1 1 1
WIDTH 1471
HEIGHT 1
VIEWPOINT 0 0 0 1 0 0 0
POINTS 1471
DATA ascii
-0.90214199 14.72225 -0.76452464
-0.67899013 14.64954 -0.77002656
-0.46025413 14.749077 -0.7817055
-0.28569871 14.654127 -0.75190604
-0.10730532 14.677608 -0.76958454
0.13265708 14.757819 -0.76838219
0.22166641 14.682635 -0.79606962
0.45632523 14.756319 -0.79015034
0.64985925 14.756584 -0.79261011
0.90969253 14.746111 -0.77752256
1.1246345 14.748303 -0.77688193
1.3259621 14.711093 -0.76854575
1.4407796 14.784267 -0.78136665
1.9780285 14.750624 -0.77523196
2.0723295 14.717283 -0.77698517
2.2641096 14.738737 -0.78403103
2.4898725 14.729256 -0.78127211
2.637265 14.720434 -0.78189337
2.8338399 14.674772 -0.78616095
3.1104918 14.608846 -0.79162163
3.2482915 14.770898 -0.79128373
3.7624025 14.603286 -0.78075337
4.026473 14.655356 -0.79978764
4.4015846 14.693328 -0.79856598
4.7403631 14.753244 -0.79658192
9.9197254 14.688072 -0.79574859
10.026987 14.649689 -0.7578283
-2.4079742 14.939513 -0.64401251
-2.3181102 14.880949 -0.60296357
-2.119314 14.892353 -0.71862507
-1.8825254 14.844969 -0.74428511
-1.7341864 14.890084 -0.74837613
-1.4370394 14.881729 -0.78950369
-1.3586645 14.873775 -0.79112649
-1.0488688 14.871361 -0.79201305
-0.96068442 14.898937 -0.78042275
-0.69624788 14.887281 -0.74759597
-0.51758432 14.949761 -0.78406811
-0.31158844 14.83918 -0.78143692
-0.098209649 14.897934 -0.76545048
0.068255134 14.835176 -0.77580881
0.22138849 14.918999 -0.7665813
0.47526091 14.896811 -0.77171248
0.6619119 14.958605 -0.79372853
0.80518961 14.948009 -0.79323709
1.0768044 14.903303 -0.78185689
1.2939239 14.841601 -0.7789675
1.435824 14.82602 -0.7812984
1.7156312 14.95188 -0.79526961
1.9329209 14.886185 -0.78852713
2.0728431 14.883141 -0.77923095
2.3074794 14.834702 -0.78516138
2.5684919 14.876187 -0.78340572
2.6694264 14.952397 -0.78354788
2.8901486 14.878916 -0.78073519
3.1118603 14.836972 -0.78539884
3.2792699 14.817497 -0.79257149
3.5421262 14.856663 -0.79321223
3.7183418 14.956821 -0.79696333
3.9803386 14.851573 -0.79740912
4.5750103 14.862127 -0.7983017
4.7025928 14.82736 -0.79746211
4.9299703 14.829788 -0.79405284
9.9216547 14.909449 -0.78869611
10.005845 14.85224 -0.74765295
-2.4214985 15.087517 -0.64273095
-2.3400106 15.090357 -0.60193259
-2.1533816 15.09218 -0.64493704
-1.9494627 15.120491 -0.79822111
-1.6965759 15.046125 -0.79248232
-1.5097262 15.043665 -0.78253186
-1.3386447 15.048487 -0.78793275
-1.0514982 15.0608 -0.78781903
-0.89287937 15.112534 -0.78108251
-0.71532547 15.099802 -0.79136682
-0.45212516 15.134033 -0.78734088
-0.30844247 15.125232 -0.77518898
-0.15352036 15.041271 -0.79398596
0.12125104 15.08914 -0.78787565
0.33890948 15.109243 -0.78613257
0.56730479 15.14593 -0.77646184
0.62187529 15.161515 -0.77754235
0.88553512 15.083076 -0.78124499
1.1411387 15.045824 -0.77947223
1.2883121 15.092548 -0.77646065
1.5247371 15.042602 -0.78868371
1.6524392 15.146412 -0.78317744
1.9214854 15.155029 -0.78393149
2.1034904 15.063807 -0.7857483
2.2728105 15.150564 -0.78788662
2.5497572 15.151024 -0.78019822
2.6495841 15.108329 -0.78101218
2.8299084 15.007988 -0.779302
3.0635128 15.004433 -0.78031683
4.6321449 15.07508 -0.79735363
9.9203768 15.100177 -0.78183532
10.007607 15.033224 -0.74467391
-2.422739 15.358479 -0.65301538
-2.2637858 15.290718 -0.74266839
-2.1294086 15.363364 -0.71126652
-1.9317689 15.222588 -0.78759259
-1.6450794 15.30191 -0.78931987
-1.4846001 15.352339 -0.77920115
-1.2137117 15.342949 -0.78858602
-1.1625526 15.33889 -0.79143548
-0.9044497 15.239866 -0.7929914
-0.67529345 15.27335 -0.7651571
-0.45921484 15.329025 -0.77825451
-0.32670158 15.339319 -0.77870131
-0.060728647 15.329138 -0.77882147
0.18326175 15.322647 -0.78298765
0.2395409 15.30447 -0.78590024
0.56641787 15.243916 -0.7842744
0.72715133 15.353891 -0.7850464
0.90882564 15.309736 -0.78228033
1.0582484 15.240471 -0.783207
1.2535775 15.336721 -0.78153992
1.5180176 15.253674 -0.78709793
1.6669147 15.304764 -0.78719771
1.859744 15.331223 -0.78145218
2.0908985 15.232457 -0.78287852
2.3315699 15.278006 -0.78569466
2.4670317 15.326767 -0.78360629
2.7296221 15.271528 -0.79910928
9.9209375 15.279967 -0.77418101
10.024531 15.29064 -0.73159504
-2.419888 15.505733 -0.64251012
-2.3248529 15.589465 -0.60795522
-2.113137 15.488409 -0.73466325
-1.878504 15.452881 -0.76328218
-1.6887636 15.543892 -0.76918143
-1.5624771 15.532545 -0.75055236
-1.3197176 15.515705 -0.763964
-1.1215141 15.52325 -0.78716338
-0.92126673 15.509271 -0.78704983
-0.68977964 15.546739 -0.79292226
-0.49110216 15.482872 -0.78863978
-0.31382903 15.536753 -0.78277826
-0.036696672 15.523232 -0.78633606
0.099829629 15.491892 -0.78542745
0.31400597 15.551618 -0.78446269
0.54508376 15.553829 -0.78915238
0.73935634 15.449836 -0.77416992
0.90981299 15.521019 -0.77955711
1.0884993 15.549071 -0.7789861
1.2890296 15.514889 -0.78106338
1.5323141 15.46986 -0.77681088
1.6599488 15.479832 -0.78420848
1.9294949 15.467348 -0.78585112
2.0824814 15.577351 -0.7846483
2.5179844 15.445812 -0.78512597
2.6218796 15.45118 -0.79402351
9.9321346 15.522182 -0.76853681
10.021907 15.497251 -0.7255007
-2.640033 15.735897 -0.78329039
-2.4072919 15.63966 -0.61640143
-2.3033659 15.606997 -0.61469531
-2.1549883 15.626104 -0.62149322
-1.91987 15.696518 -0.79458928
-1.6961505 15.688568 -0.78879654
-1.5114527 15.66072 -0.7862823
-1.2823788 15.713576 -0.79201072
-1.0597478 15.740105 -0.79380685
-0.84360445 15.624033 -0.78522885
-0.75114727 15.660999 -0.78983748
-0.51326942 15.716658 -0.78728116
-0.24706589 15.627531 -0.77321559
-0.11287153 15.767879 -0.78738558
0.13735965 15.72094 -0.78396302
0.26698834 15.636175 -0.78399014
0.48917094 15.654847 -0.78747219
0.75033903 15.684218 -0.7782048
0.8555696 15.766375 -0.78138083
1.1558909 15.655117 -0.77592516
1.2467865 15.660883 -0.78284091
1.5000638 15.646652 -0.77863485
1.6547709 15.687106 -0.78079718
1.9485354 15.638339 -0.79030323
2.04848 15.661835 -0.77948737
2.2661562 15.664389 -0.79300833
2.5137939 15.747947 -0.79590964
9.9335632 15.717278 -0.76059854
10.016945 15.696228 -0.72030699
-2.5192037 15.943971 -0.76166821
-2.2445884 15.932861 -0.69108796
-2.1592727 15.92737 -0.60575914
-1.8795191 15.886131 -0.79228246
-1.6696516 15.968307 -0.78851581
-1.5214133 15.923727 -0.79391634
-1.2774177 15.91853 -0.78902483
-1.0921558 15.818691 -0.79005128
-0.85813415 15.896595 -0.78392768
-0.73627669 15.906966 -0.77852398
-0.50955188 15.935066 -0.77389944
-0.30405599 15.863036 -0.77566278
-0.034284577 15.872988 -0.78721547
0.12221663 15.83802 -0.78472364
0.31556511 15.918928 -0.78595507
0.52117991 15.9301 -0.77825987
0.68043864 15.842032 -0.78213966
0.87435162 15.902729 -0.77983868
1.0963415 15.957074 -0.78532678
1.250843 15.957981 -0.78220356
1.5036223 15.919028 -0.78455842
1.6874769 15.950289 -0.78281415
1.8385985 15.958186 -0.78279233
2.1167743 15.918265 -0.78910267
9.9361038 15.907867 -0.75460792
10.015833 15.891378 -0.71444917
-2.5458159 16.127075 -0.79260612
-2.2732804 16.104731 -0.66873306
-2.1706481 16.072878 -0.66901332
-1.8291597 16.113907 -0.79470932
-1.7154815 16.180677 -0.78521973
-1.5040052 16.145531 -0.77428567
-1.2995973 16.068216 -0.76254606
-1.0521507 16.113564 -0.79599941
-0.87078893 16.121059 -0.78714871
-0.70584553 16.080685 -0.78918612
-0.47352761 16.115547 -0.79610813
-0.26869977 16.091743 -0.77697623
-0.053104207 16.071337 -0.78572053
0.048844293 16.134119 -0.78422809
0.28816798 16.051971 -0.779971
0.51896453 16.096138 -0.78213286
0.69334942 16.11772 -0.77922273
0.88662815 16.123955 -0.77926397
1.1276252 16.103842 -0.78099757
1.2840459 16.13089 -0.78719115
1.7434865 16.031147 -0.78399366
1.8223765 16.052839 -0.79037911
2.0004015 16.022675 -0.7936098
2.3086739 16.137127 -0.79159516
9.9361916 16.094723 -0.74870193
10.013353 16.099184 -0.70934606
-2.6168685 16.289408 -0.79832411
-2.56604 16.325478 -0.79847836
-2.258636 16.324471 -0.60291582
-2.1726153 16.375187 -0.73967278
-1.8797644 16.261267 -0.79254317
-1.7451638 16.309025 -0.79646617
-1.5084699 16.224121 -0.7878437
-1.2444377 16.294209 -0.7921958
-1.16208 16.226343 -0.79001987
-0.69471276 16.260941 -0.78653485
-0.48907262 16.319313 -0.78802824
-0.32784253 16.263119 -0.78015471
-0.11140219 16.340961 -0.77713323
0.11715243 16.334154 -0.78213751
0.31372631 16.261726 -0.78258979
0.54078937 16.258163 -0.78115869
0.66662765 16.284014 -0.78480536
0.88266432 16.362446 -0.78553188
1.3035225 16.260702 -0.77986234
1.4819331 16.364235 -0.77816033
1.7130569 16.220604 -0.78170902
1.8750684 16.240505 -0.79330301
2.5982046 16.227139 -0.79869753
9.9338474 16.270567 -0.74244142
10.022358 16.268864 -0.70328176
-2.4687614 16.508026 -0.78298312
-2.2372348 16.533512 -0.75487864
-2.1269848 16.496031 -0.74741006
-1.9106098 16.438976 -0.79715997
-1.6778429 16.523891 -0.78854537
-1.5378952 16.560577 -0.78350371
-1.3423736 16.529339 -0.78357834
-1.1344653 16.52549 -0.79825616
-0.88973939 16.4914 -0.77331179
-0.73521441 16.463493 -0.78804445
-0.58131599 16.513683 -0.78846955
-0.24792621 16.504158 -0.78904533
-0.10097848 16.500816 -0.78940964
0.081152484 16.5509 -0.78688347
0.3375051 16.430084 -0.78259665
0.51165032 16.486868 -0.79552639
0.73444009 16.445271 -0.78800702
0.92479277 16.417763 -0.78218889
1.1080871 16.500778 -0.78645241
1.2804255 16.475691 -0.78785795
1.4993112 16.443607 -0.79308707
1.6932955 16.522007 -0.79242802
2.38445 16.498863 -0.7917912
9.9345903 16.501209 -0.72988653
10.015008 16.453897 -0.69862694
-2.5740101 16.781666 -0.79986894
-2.2489095 16.722408 -0.77395678
-2.1610482 16.714937 -0.74162257
-1.8832799 16.734417 -0.76709217
-1.6402519 16.65263 -0.78017819
-1.5778141 16.787107 -0.77798742
-1.3494658 16.68129 -0.79407561
-1.0712233 16.700005 -0.77244031
-0.95121098 16.763699 -0.77614522
-0.68102086 16.699854 -0.78253394
-0.50929248 16.63768 -0.78299117
-0.31824282 16.657227 -0.7883991
-0.17755827 16.731331 -0.78157604
0.086380005 16.671421 -0.77913427
0.25162879 16.704006 -0.78321493
0.55071616 16.740524 -0.7911582
0.74659169 16.70369 -0.78307623
0.9283973 16.717941 -0.79623538
1.2249477 16.650024 -0.7860254
1.4939032 16.773739 -0.79096466
2.1282063 16.651058 -0.7949695
2.3320332 16.788778 -0.78982902
4.2197266 16.623772 -0.79966128
9.9059105 16.719221 -0.77643514
10.012345 16.655783 -0.69348973
-2.2628658 16.946484 -0.69713163
-2.1282208 16.951843 -0.7745924
-1.9587076 16.889629 -0.77133501
-1.7377101 16.824841 -0.78623635
-1.5084798 16.823317 -0.78814232
-1.3654058 16.823265 -0.78189504
-1.069013 16.844032 -0.7908116
-0.87692922 16.865913 -0.77303952
-0.65818536 16.940327 -0.77709877
-0.50540566 16.93906 -0.78566927
-0.33071899 16.999935 -0.78712845
-0.10206218 16.924925 -0.78472805
0.59061229 16.823204 -0.797804
0.7019794 16.834686 -0.79318202
1.280354 16.895554 -0.79425019
1.6810131 16.823368 -0.79540205
1.8959084 16.941216 -0.79564643
2.1923437 16.920853 -0.78866744
9.8883209 16.938194 -0.78844833
10.028751 16.892094 -0.68478495
-2.238368 17.06106 -0.74256349
-2.1714864 17.049797 -0.75639504
-1.8602408 17.028889 -0.77698028
-1.708763 17.16045 -0.79696536
-1.2224541 17.122673 -0.79139537
-1.130183 17.09787 -0.7968449
-0.91182339 17.101826 -0.78548706
-0.48121512 17.036226 -0.77534997
-0.30776119 17.106308 -0.78328723
-0.1139365 17.112965 -0.78382194
0.57288933 17.102531 -0.78834993
1.3057213 17.026386 -0.79524541
9.884798 17.113199 -0.79779398
10.014786 17.074141 -0.68234372
-2.6174128 17.39603 -0.63431603
-2.5460868 17.398689 -0.6408549
-2.2251101 17.268673 -0.70032901
-2.1178803 17.333593 -0.7725997
-1.9888393 17.393007 -0.70244014
-1.7038462 17.347088 -0.77076817
-1.5457821 17.382847 -0.78535181
-1.2609289 17.367859 -0.77549827
-1.0599303 17.367359 -0.79408938
-0.89405566 17.316971 -0.7946291
-0.7431345 17.338566 -0.79282296
-0.49518198 17.250114 -0.78314996
-0.29104042 17.382481 -0.78377604
-0.090802133 17.336628 -0.78460616
0.1433506 17.262159 -0.78273654
0.69156075 17.285709 -0.79531682
9.9005957 17.305035 -0.7972154
10.024307 17.30512 -0.67480868
-2.6491849 17.419106 -0.64680326
-2.5619299 17.407629 -0.64121962
-2.3100009 17.418392 -0.65752119
-2.0317099 17.474728 -0.75314456
-1.9948208 17.554937 -0.74463451
-1.7167275 17.466595 -0.78820074
-1.5269647 17.428703 -0.78386295
-1.226676 17.433388 -0.77732325
-1.064182 17.464928 -0.79130685
-0.97199833 17.474926 -0.79609823
-0.27140272 17.446617 -0.78621143
-0.16200706 17.432537 -0.78431755
0.0080451965 17.593586 -0.78225851
1.0401287 17.513008 -0.78600663
9.8982744 17.515087 -0.79282272
10.01226 17.524256 -0.67176282
-2.0253975 17.640701 -0.74552321
-1.9949439 17.668388 -0.72175938
-1.7268304 17.734924 -0.78789002
-1.4598103 17.740513 -0.78657734
-1.2111511 17.675304 -0.79538608
-1.0070946 17.753792 -0.78020406
-0.95447767 17.765289 -0.77814269
-0.3732543 17.61945 -0.7894733
-0.16501617 17.777203 -0.79016221
0.10282421 17.6574 -0.78772128
9.8968983 17.677603 -0.78870106
10.01838 17.70463 -0.66600269
-2.0504351 17.827703 -0.77692103
-1.9968072 17.940823 -0.70514566
-1.6985123 17.869354 -0.7884118
-1.4866743 17.850616 -0.79212499
-1.2431036 17.975414 -0.79153764
-1.1592956 17.965288 -0.79517126
-0.94726509 17.857822 -0.783355
-0.44108677 17.838703 -0.7908349
-0.15378392 17.848772 -0.79622525
0.030925751 17.864424 -0.79080039
0.31739426 17.970819 -0.78741175
9.8809376 17.899494 -0.79404998
10.018663 17.899212 -0.66197789
-2.0476842 18.069473 -0.62603676
-1.9930762 18.054096 -0.71292204
-1.7982506 18.124044 -0.79977304
-1.4351989 18.021297 -0.79112005
-1.2647178 18.087795 -0.79504454
-1.0787053 18.090034 -0.79023659
-0.90558118 18.100466 -0.79200482
-0.73740292 18.059374 -0.78477943
-0.55675125 18.033283 -0.78012133
0.069070429 18.17853 -0.79643267
0.55663157 18.043392 -0.79660666
3.3854828 18.199352 -0.64260834
3.6738033 18.178072 -0.78115976
9.7826767 18.118748 -0.79930437
9.8833447 18.092937 -0.78805697
10.01643 18.104025 -0.65768343
-2.0454509 18.26997 -0.6031847
-1.9428182 18.330597 -0.61394632
-1.7447416 18.361885 -0.78951359
-1.450217 18.223104 -0.79775691
-1.2307794 18.231499 -0.79633921
-1.0502193 18.236893 -0.7973628
-0.89727479 18.301603 -0.79625571
-0.27044201 18.218069 -0.79290783
-0.16266298 18.271099 -0.79895121
2.778049 18.369154 -0.62638426
2.9430916 18.361288 -0.67662281
3.0491741 18.354374 -0.71094602
3.382443 18.274963 -0.7761606
3.4344132 18.324825 -0.74040055
9.8805161 18.312155 -0.7823745
10.015093 18.318398 -0.65338248
-2.0348253 18.413126 -0.63026088
-1.9299119 18.406105 -0.61896175
-1.7495279 18.509228 -0.78612268
-1.341383 18.533972 -0.79719335
-1.0718907 18.50177 -0.78934419
-0.85241354 18.436623 -0.79046923
-0.056150109 18.592546 -0.79961371
2.7333646 18.407652 -0.64687383
2.8181517 18.402805 -0.66519994
3.1518397 18.400818 -0.64302516
3.3950725 18.573021 -0.73804843
3.4207659 18.5891 -0.73656619
9.8813906 18.489243 -0.77309096
10.012055 18.509314 -0.64995414
-2.010411 18.722168 -0.76435399
-1.916062 18.624855 -0.60853028
-1.7872592 18.7085 -0.78898764
-1.2270209 18.683731 -0.79749197
-1.1331443 18.674545 -0.78765941
2.7772934 18.634212 -0.69076562
3.1946378 18.69581 -0.6484288
3.3929822 18.766756 -0.73460984
3.4090745 18.679785 -0.73500931
9.8832684 18.709515 -0.76110423
10.089211 18.71175 -0.7872709
-1.9108965 18.84123 -0.61866677
-1.7660458 18.947643 -0.79507506
-1.2007308 18.992609 -0.79920572
-1.0835865 18.929321 -0.79744959
2.765249 18.846443 -0.71432388
3.186434 18.888678 -0.64025682
3.3920391 18.849123 -0.7349326
3.4030404 18.858585 -0.73345685
9.8847446 18.891022 -0.75080943
10.098936 18.852768 -0.7674309
-2.0536878 19.180485 -0.67388058
-1.9239621 19.038429 -0.60969603
-1.1261955 19.00069 -0.79954797
0.39206409 19.178249 -0.70473719
0.50096864 19.176214 -0.60103488
0.62286681 19.156597 -0.63865012
2.3941183 19.138794 -0.79273391
2.4186852 19.133036 -0.75927693
2.7559578 19.181847 -0.7505582
2.9065714 19.181 -0.74381942
3.163069 19.1689 -0.73584974
3.3899384 19.072588 -0.73035288
3.4018822 19.110746 -0.73027778
9.9205685 19.194305 -0.60523421
10.12396 19.193199 -0.60430366
10.286354 19.194441 -0.60439152
10.487749 19.191948 -0.60507578
10.697643 19.193071 -0.6063323
10.895113 19.192778 -0.60782325
11.093457 19.195414 -0.60916948
11.302959 19.195534 -0.61115813
11.486014 19.195791 -0.61352843
11.691432 19.195662 -0.61637157
11.894485 19.193935 -0.62013668
12.138838 19.19846 -0.62497067
12.310043 19.197302 -0.62738079
12.514766 19.196035 -0.6315642
12.67095 19.194784 -0.63561451
12.953358 19.198078 -0.64676011
13.089951 19.197788 -0.64712906
13.31685 19.19829 -0.65247023
13.453636 19.195564 -0.65635425
13.682358 19.198654 -0.66430557
13.927382 19.196394 -0.67486292
14.040527 19.185078 -0.73220634
14.324099 19.179295 -0.68611109
14.559067 19.164265 -0.63349855
14.613462 19.190044 -0.64531201
-2.0433011 19.289965 -0.62684983
-1.9917085 19.279625 -0.68473011
-1.4343871 19.338062 -0.76135409
-1.3250997 19.395056 -0.6931411
-1.1930454 19.393047 -0.76683682
-0.017910704 19.336756 -0.72881252
0.099399425 19.39373 -0.64329529
0.35873073 19.273979 -0.63949674
0.46724647 19.211369 -0.6465174
0.66402566 19.357376 -0.60175639
0.88692069 19.391865 -0.71756017
1.0850804 19.394264 -0.71415997
1.2340596 19.39193 -0.71090651
1.5305908 19.391918 -0.70526612
1.6948277 19.393724 -0.70365286
1.9780394 19.38131 -0.70211655
2.0340004 19.396824 -0.74477625
2.3888662 19.22941 -0.77199078
2.4436741 19.28923 -0.75791979
2.724659 19.205534 -0.75146949
2.8409777 19.205526 -0.75814033
3.088805 19.204979 -0.73974913
3.2528453 19.220518 -0.75614893
3.412055 19.211889 -0.75797451
9.7946873 19.281645 -0.78229785
9.9233351 19.207151 -0.60665268
10.12623 19.20347 -0.6041882
10.345379 19.202124 -0.60489345
10.541195 19.203627 -0.60554832
10.714334 19.204206 -0.60587358
10.904917 19.205658 -0.60712105
11.079994 19.205519 -0.60877484
11.274634 19.202448 -0.61124772
11.507751 19.204891 -0.61349267
11.705658 19.205702 -0.61624098
11.903263 19.205557 -0.61919123
12.096321 19.206558 -0.62250656
12.30324 19.20751 -0.62660885
12.484262 19.203526 -0.63074523
12.710498 19.205151 -0.63559985
12.898295 19.210394 -0.63995445
13.094457 19.211782 -0.64507622
13.287718 19.207375 -0.65063351
13.511428 19.206701 -0.65727758
13.702164 19.20916 -0.66299164
13.873756 19.208843 -0.66884845
14.041253 19.392742 -0.67231262
14.301462 19.21649 -0.7782886
14.489844 19.208103 -0.66651779
14.638951 19.20134 -0.65945476
-2.0439534 19.470173 -0.64089084
-1.9969227 19.509306 -0.75407028
-1.7066662 19.533733 -0.78966612
-1.4345326 19.448101 -0.73201036
-1.2619129 19.46294 -0.73212516
-1.198211 19.554226 -0.62453008
-0.86324096 19.479687 -0.79891348
-0.76436162 19.524384 -0.79655069
-0.024031121 19.451015 -0.70552385
0.080391802 19.403822 -0.61973727
0.23989028 19.512159 -0.69715178
0.58605707 19.426981 -0.70762116
0.66982317 19.458057 -0.60257727
0.9308365 19.446968 -0.70786405
1.0491874 19.491165 -0.70612836
1.27036 19.500202 -0.70712924
1.5048404 19.432104 -0.70398819
1.6661445 19.441372 -0.70183456
1.9131972 19.537678 -0.70334804
2.0443957 19.494591 -0.70752788
2.3943808 19.511593 -0.77238911
2.4524302 19.426123 -0.75486755
2.6986558 19.538731 -0.73808181
2.8265324 19.59314 -0.65823901
3.0633669 19.42664 -0.70863879
3.2575655 19.570137 -0.67471921
3.5354004 19.445641 -0.73057657
3.7025886 19.572046 -0.71436322
3.8044763 19.536734 -0.65511715
9.9753857 19.40584 -0.68494046
12.58948 19.403254 -0.79495239
12.66693 19.403946 -0.79987013
13.972554 19.457649 -0.77153707
14.102871 19.486256 -0.6677013
14.203221 19.592686 -0.73326313
-2.067955 19.693867 -0.70824313
-1.9843713 19.773514 -0.73913914
-1.613584 19.605988 -0.79515469
-1.4218934 19.794901 -0.79676598
-1.2343051 19.614403 -0.61149037
-1.1955478 19.605965 -0.66368902
-0.58534718 19.701748 -0.79790908
-0.35842443 19.621212 -0.79810143
0.15733939 19.676682 -0.75979388
0.21346754 19.604412 -0.66780132
0.58239484 19.635494 -0.6361872
0.65743577 19.70957 -0.60156775
0.95109522 19.71254 -0.60679328
1.0329218 19.713015 -0.60832703
1.2289883 19.736673 -0.62160707
1.412466 19.727806 -0.63992578
1.6137838 19.708202 -0.65984035
1.8310065 19.696892 -0.70959371
2.0049167 19.720266 -0.67530107
2.3925703 19.653168 -0.76751482
2.4354837 19.642015 -0.75323331
2.7012994 19.633389 -0.65657473
2.8159683 19.618948 -0.6800245
3.1785131 19.657503 -0.77304435
3.245544 19.721304 -0.77752924
3.4869156 19.786594 -0.66905695
3.7275159 19.622284 -0.64602315
3.8123436 19.620876 -0.7652142
13.908975 19.6133 -0.76226282
14.183921 19.628696 -0.66703773
14.262614 19.718222 -0.66692549
14.401912 19.773218 -0.674564
-2.071506 19.832035 -0.67936194
-1.9953429 19.80703 -0.73049766
-1.5154847 19.956383 -0.79617721
-1.3007818 19.912788 -0.79470581
-1.1986961 19.964775 -0.79799569
2.3952966 19.975771 -0.76777482
2.4410796 19.905144 -0.75148451
3.0890217 19.890892 -0.62997007
3.2325945 19.868771 -0.61534011
3.5138235 19.893951 -0.6543411
3.6166239 19.931364 -0.74129224
14.193226 19.979256 -0.66207933
14.377439 19.96167 -0.66931605
14.42202 19.83905 -0.62578321
-2.2279921 20.144054 -0.74941182
-2.0591431 20.018572 -0.70707655
-1.9916594 20.125515 -0.73555923
-1.4334272 20.057285 -0.79726267
-1.3076563 20.080948 -0.79860437
-1.1548272 20.016811 -0.79188269
1.5776772 20.184601 -0.77555549
1.6259081 20.182705 -0.76293427
1.9263089 20.182865 -0.76919329
2.0435128 20.180777 -0.76874346
2.3941083 20.009254 -0.76435316
2.4383016 20.121902 -0.74902296
3.1047564 20.155354 -0.72311282
3.2504196 20.16823 -0.72926784
3.5331097 20.194765 -0.71252871
3.6412957 20.197248 -0.70661402
14.198578 20.118675 -0.65708053
14.374829 20.115349 -0.66000527
14.415669 20.153624 -0.61221874
14.66152 20.165823 -0.60047746
-2.1028514 20.204893 -0.72334671
-1.990626 20.370495 -0.78428268
-1.3326521 20.24754 -0.7980547
-1.1817255 20.227501 -0.79929042
-0.92910671 20.205149 -0.79278952
1.5837666 20.247879 -0.75239158
1.6422043 20.252007 -0.69133103
1.8402392 20.29147 -0.66935927
2.1366372 20.217827 -0.75670648
2.3801332 20.246895 -0.76852429
2.4237635 20.294483 -0.66875309
2.6169412 20.329399 -0.64406461
3.1896667 20.250639 -0.7260735
3.2360678 20.268192 -0.77379149
3.5520775 20.21175 -0.71307003
3.6036365 20.25071 -0.74642503
14.198755 20.267538 -0.64921552
14.371179 20.308355 -0.65454376
14.414286 20.295916 -0.60171103
-2.1291137 20.406698 -0.78538173
-1.9965765 20.497837 -0.77994967
1.5864215 20.423262 -0.78976142
1.6290929 20.515362 -0.70825899
1.9016433 20.492506 -0.68292117
2.1290774 20.406542 -0.61886173
2.367589 20.409506 -0.62482476
2.427331 20.418053 -0.61952448
2.7540174 20.543709 -0.65226763
2.8437743 20.576481 -0.62497097
3.1969247 20.573093 -0.72031897
3.2057996 20.571072 -0.72088951
3.4820707 20.486387 -0.65714705
3.6197152 20.404381 -0.68737614
14.194917 20.517405 -0.79371929
14.37 20.502337 -0.64915758
14.408676 20.485121 -0.60132992
14.617858 20.536036 -0.60055143
-2.1219132 20.742657 -0.71060407
-1.9960588 20.689695 -0.7626704
1.5735681 20.748482 -0.65815943
1.6188728 20.64703 -0.64942878
1.9581816 20.706966 -0.73481494
2.0513382 20.623314 -0.75405705
2.3536675 20.619827 -0.68568134
2.7783432 20.622141 -0.6523782
2.8564627 20.60577 -0.62157965
3.175204 20.77743 -0.71945637
3.2228665 20.606413 -0.77390707
14.196642 20.718468 -0.78118777
14.366889 20.706205 -0.64361697
14.408081 20.69276 -0.60158843
14.617067 20.702442 -0.60119027
-2.2163391 20.937811 -0.64848566
-2.1181121 20.901585 -0.64183939
-1.9951894 20.854504 -0.76896608
1.3940653 20.98484 -0.71653819
1.5716357 20.873985 -0.66180235
1.6315656 20.907494 -0.68853331
1.9751662 20.911901 -0.74768001
2.031292 20.945091 -0.75246024
2.7564168 20.938913 -0.69889617
2.8877935 20.947212 -0.69040704
3.1635649 20.898249 -0.71853274
3.207972 20.857752 -0.79115218
3.4077978 20.80028 -0.69118375
14.198486 20.830908 -0.77517009
14.367928 20.904942 -0.63847274
14.409523 20.904959 -0.60119849
14.6054 20.869078 -0.60153019
-2.1173899 21.058964 -0.62094897
-1.9951581 21.095972 -0.79671282
1.3130608 21.072052 -0.73024923
1.4862179 21.082899 -0.69289482
1.6461235 21.039534 -0.64325559
1.9786713 21.051006 -0.73225653
2.0110376 21.110205 -0.74131942
2.7882957 21.056812 -0.71466225
2.9717298 21.082518 -0.77468497
3.1281428 21.096933 -0.71866101
3.2076588 21.024988 -0.77791238
14.363572 21.126926 -0.67837405
14.404833 21.123024 -0.60112667
-2.1383228 21.26487 -0.79498267
-1.9978111 21.284002 -0.79027736
0.4997282 21.203524 -0.78792644
1.3149906 21.233219 -0.60370076
1.563449 21.215748 -0.62416887
1.6362334 21.220528 -0.62355691
1.9799097 21.229996 -0.7437011
2.0442395 21.307766 -0.73554826
2.9544871 21.33197 -0.75690293
3.0912948 21.289524 -0.71908295
3.2804255 21.294468 -0.77325261
14.360735 21.303658 -0.71015006
14.410916 21.300621 -0.60141969
14.609502 21.282005 -0.60062689
-2.0641177 21.434368 -0.77055085
-1.9901853 21.49942 -0.79362887
0.58495814 21.577454 -0.78177965
0.62246555 21.576479 -0.7663753
0.94383097 21.496319 -0.71919763
1.0948845 21.552269 -0.70733726
1.2041726 21.47683 -0.79589593
1.5681117 21.425955 -0.70894027
1.6783447 21.432589 -0.71627867
1.9773567 21.425495 -0.73781919
2.1441913 21.522768 -0.69664896
2.2032936 21.573647 -0.71706599
2.9701505 21.554966 -0.73981857
3.0486548 21.501755 -0.71986705
3.3293264 21.481964 -0.71203059
3.4242678 21.504898 -0.70181197
14.361113 21.455849 -0.71345437
14.463898 21.463112 -0.60205203
-2.1300271 21.734638 -0.7924785
-1.9944098 21.635399 -0.7984035
-0.23945723 21.777891 -0.76367378
-0.13647939 21.777828 -0.76399994
0.29828024 21.723591 -0.75906754
0.50889707 21.73815 -0.74445021
0.62704563 21.723061 -0.73800009
0.92501456 21.701239 -0.76745218
1.0856516 21.694794 -0.69883931
1.2050197 21.678793 -0.60743743
1.9677382 21.675236 -0.7479372
2.0963535 21.693033 -0.73781037
2.2022588 21.786415 -0.73623544
2.9920683 21.776836 -0.72289622
3.0302758 21.772995 -0.72104418
3.2994237 21.778416 -0.67883635
3.452507 21.605236 -0.65514672
14.19762 21.745134 -0.79990995
14.358762 21.606241 -0.68144071
14.428194 21.701508 -0.60243118
-2.1191475 21.949249 -0.71559584
-1.9954484 21.822765 -0.79889697
-0.12027217 21.828239 -0.76390433
0.096470073 21.855503 -0.76135153
0.3896001 21.807756 -0.78902256
0.44740444 21.812889 -0.77316743
0.69972086 21.823328 -0.67448044
0.93621874 21.878887 -0.63897347
1.0681653 21.89234 -0.63039482
1.2094007 21.841431 -0.63745236
1.9966707 21.826122 -0.776703
2.1682994 21.842754 -0.70568484
2.2231278 21.953583 -0.7431463
2.9737558 21.967194 -0.72225529
3.029078 21.819376 -0.72066855
3.3475671 21.881607 -0.70063245
3.4221892 21.833126 -0.72136158
14.176346 21.943386 -0.78835177
14.218206 21.855141 -0.77462316
14.506488 21.845379 -0.64524436
-2.1522226 22.174305 -0.71274298
-1.9959736 22.033392 -0.76818919
-0.14581668 22.011196 -0.76712561
0.1097187 22.025738 -0.76952243
0.3724463 22.095417 -0.79635715
0.44933841 22.136356 -0.79514068
0.73798805 22.108175 -0.73023129
0.98786163 22.168056 -0.77292567
1.0368688 22.185017 -0.73976684
1.2130594 22.088057 -0.6457302
2.1357796 22.164909 -0.70902997
2.3784897 22.050879 -0.73741961
2.5208163 22.156998 -0.7154215
2.6230984 22.188284 -0.73590463
2.945771 22.084955 -0.72307414
3.0539382 22.151867 -0.74176854
3.2312999 22.104292 -0.70440745
3.4838026 22.164188 -0.63607097
13.973328 22.133987 -0.73972702
14.085239 22.026573 -0.60590595
14.236536 22.101084 -0.68804431
14.548613 22.024748 -0.60264635
-2.1545589 22.373022 -0.72259021
-1.9968262 22.248325 -0.74775445
-0.14688876 22.275442 -0.76573497
0.15385385 22.335938 -0.76150864
0.33130905 22.329802 -0.75430799
0.57900572 22.227045 -0.79371953
0.62344456 22.232246 -0.78283268
0.98144323 22.284485 -0.77513665
1.006892 22.30909 -0.78103006
1.2111242 22.327705 -0.68304187
2.1941478 22.306126 -0.75402308
2.312835 22.306259 -0.74363661
2.5727623 22.27146 -0.72474164
2.705117 22.34783 -0.72669393
2.9320908 22.377346 -0.72418255
3.150445 22.347383 -0.71482205
3.2316141 22.371311 -0.7141217
3.4982648 22.394501 -0.70365417
3.6064279 22.228537 -0.61319685
13.76716 22.312202 -0.70267195
13.849886 22.283478 -0.75808507
14.003865 22.239716 -0.75842178
14.236796 22.247513 -0.60316521
-2.2098269 22.541895 -0.73733091
-2.1443264 22.506058 -0.72747505
-1.9959337 22.496061 -0.76053113
-0.047669291 22.505163 -0.74343359
0.12946229 22.572094 -0.77544397
0.30488235 22.510475 -0.7696417
0.46663913 22.568634 -0.7940864
0.7590338 22.587547 -0.79689234
0.94720101 22.52079 -0.79650253
1.1282268 22.552055 -0.78640306
1.355724 22.576691 -0.78450203
1.409499 22.539673 -0.77637482
1.6406484 22.584312 -0.65416276
2.1855104 22.419033 -0.75428045
2.2867696 22.569214 -0.77487433
2.4784081 22.476234 -0.74059099
2.7632747 22.509556 -0.72164047
2.8762712 22.430008 -0.72693431
3.0419679 22.4104 -0.64085633
3.324044 22.415295 -0.68112099
3.4896312 22.42749 -0.70338374
3.6021442 22.469368 -0.62570328
13.761179 22.47364 -0.6934911
13.805883 22.452351 -0.74760634
14.073547 22.501247 -0.60253102
-2.1261947 22.657623 -0.72224426
-1.9946538 22.639385 -0.76868314
-0.080703661 22.702049 -0.78530908
0.17306647 22.627682 -0.79145813
0.31772128 22.68866 -0.79710811
0.54123628 22.682621 -0.7895816
0.75523388 22.688072 -0.79893613
0.92679656 22.718029 -0.79351777
1.0707237 22.761208 -0.79549932
1.3341112 22.688162 -0.78356934
1.5033011 22.719231 -0.78087294
1.6531433 22.639839 -0.71122557
1.9413168 22.671268 -0.74950886
2.0866961 22.716475 -0.7572279
2.335043 22.680626 -0.74815559
2.4850721 22.68259 -0.74242699
2.6511574 22.686115 -0.73600066
2.9491608 22.681828 -0.72424531
3.0020075 22.681036 -0.79353541
3.3911648 22.648432 -0.6378659
3.4736776 22.695623 -0.61794448
13.552422 22.682541 -0.63701773
13.73755 22.73097 -0.7527923
13.803195 22.735716 -0.72182453
-2.1316071 22.908073 -0.75088608
-1.9939643 22.90176 -0.78476727
-0.011114359 22.963276 -0.77132714
0.099064961 22.882172 -0.76985461
0.22208345 22.856588 -0.73095804
0.47742462 22.956047 -0.7553153
0.73854136 22.811302 -0.79796875
0.98369533 22.824612 -0.76264238
1.1660939 22.812805 -0.76850784
1.3245473 22.839664 -0.78718197
1.4790671 22.823627 -0.74400133
1.6106521 22.880125 -0.70376778
2.2455015 22.935293 -0.70600939
2.4137869 22.836611 -0.73067081
2.6770122 22.956852 -0.70040488
2.8348942 22.838924 -0.68655866
3.0207181 22.820612 -0.75808513
3.3807132 22.915436 -0.65011317
3.4844317 22.957909 -0.61143124
13.582838 22.933056 -0.77839231
13.730287 22.870754 -0.73146611
13.804089 22.831102 -0.76176834
-2.1069887 23.023001 -0.61197567
-1.9942262 23.126259 -0.79558492
-0.067625999 23.025433 -0.7801559
0.079149097 23.097324 -0.75741458
1.3428845 23.087933 -0.76715606
1.5424635 23.03931 -0.72706187
2.3039942 23.032387 -0.71024466
2.5155849 23.000227 -0.71418309
3.0922029 23.187338 -0.60134429
3.3753843 23.088593 -0.64716256
3.4507635 23.151592 -0.62443042
13.567726 23.153011 -0.6185528
13.743925 23.021599 -0.77565682
13.808125 23.071156 -0.76182246
-2.1601348 23.332188 -0.71832222
-1.9935116 23.268101 -0.79780638
-0.00012874603 23.234398 -0.77447504
0.045841284 23.215324 -0.77553141
1.9265118 23.391283 -0.76004314
2.0162525 23.386929 -0.70868784
2.9710875 23.301464 -0.60525841
3.0643659 23.20915 -0.60520351
3.3897781 23.346203 -0.64336789
3.4309514 23.32037 -0.6314401
13.721763 23.225996 -0.76316178
13.806397 23.287365 -0.77721763
-2.1326234 23.557652 -0.66298968
-1.9874723 23.433741 -0.79802752
0.065812066 23.462433 -0.77433181
1.9828438 23.457796 -0.76625752
2.0056319 23.449165 -0.75820452
3.0344057 23.513649 -0.60128176
3.3614626 23.483757 -0.62634861
3.4373989 23.50827 -0.62324578
13.569268 23.586033 -0.60183364
13.745216 23.421349 -0.71281099
13.812137 23.553991 -0.70742393
-2.1133153 23.733862 -0.61225408
-1.9997984 23.730995 -0.79123819
-1.4093597 23.777672 -0.78518975
-1.3242536 23.790001 -0.78177875
-1.170717 23.767254 -0.77949131
-0.83749604 23.757208 -0.77228391
-0.69373214 23.785463 -0.79658937
0.073593438 23.610575 -0.77268964
1.9992211 23.707001 -0.76892233
2.0109084 23.69808 -0.7671594
3.0122805 23.698368 -0.60141754
3.3724196 23.735634 -0.63530111
3.4164591 23.649117 -0.62695539
13.572151 23.616709 -0.60167938
13.746064 23.628044 -0.70197272
13.808138 23.655344 -0.69043249
-2.1122298 23.827454 -0.62563843
-1.9992115 23.885361 -0.79636288
-1.6537683 23.987015 -0.79659414
-1.5309438 23.947506 -0.76465595
-1.3826654 23.824146 -0.78096926
-0.8186115 23.807529 -0.7920872
-0.6766659 23.847923 -0.79602253
-0.53254795 23.985826 -0.78554571
1.7648201 23.956385 -0.76645279
1.9942967 23.84021 -0.77636564
2.0162635 23.934353 -0.76972961
2.8431034 23.940819 -0.70169234
3.1207211 23.954849 -0.70522851
3.3740158 23.919601 -0.75542945
3.4206967 23.848738 -0.78326893
13.592886 23.908485 -0.61736822
13.751983 23.824524 -0.73447102
13.807953 23.838022 -0.64461941
-2.1160078 24.085752 -0.62793905
-1.6139803 24.066601 -0.78844297
-1.5875533 24.007156 -0.77766848
-0.44296187 24.174995 -0.79363054
-0.39128023 24.16522 -0.77834702
1.7866309 24.015926 -0.75019479
1.9224969 24.018425 -0.7726053
2.0080731 24.011827 -0.76001191
2.2232556 24.023232 -0.60299563
2.7830565 24.115068 -0.7438404
2.8233609 24.112057 -0.74462664
3.0590243 24.09927 -0.73485577
3.3357301 24.111221 -0.71976173
3.4078112 24.118505 -0.67100948
13.749594 24.016949 -0.68120623
13.81181 24.080433 -0.65597188
-2.0530684 24.254988 -0.74404192
-0.41992182 24.263088 -0.79350185
-0.38429776 24.347357 -0.79583639
2.0607352 24.231592 -0.73016566
2.8620043 24.338345 -0.66274136
3.1321101 24.244463 -0.69919002
3.3607283 24.364983 -0.70289391
3.4074364 24.298046 -0.63486385
13.743691 24.217905 -0.7016511
13.803066 24.284931 -0.6521666
-2.0287027 24.448204 -0.76492292
-0.4080348 24.546009 -0.7942515
-0.38176215 24.478928 -0.79776454
2.7813036 24.570877 -0.78507364
2.8192387 24.544231 -0.69823074
3.1375923 24.475014 -0.68052244
3.3230193 24.528198 -0.78659046
3.4103913 24.497826 -0.60210907
13.746511 24.431118 -0.68333739
13.807825 24.490652 -0.66124731
-2.0368583 24.642937 -0.77474821
-0.61059403 24.767721 -0.62467265
-0.42668736 24.69244 -0.79224408
-0.38937017 24.624249 -0.79630846
2.7777209 24.690571 -0.75366127
2.8373628 24.670567 -0.73763043
3.0123262 24.684448 -0.71587551
3.3087058 24.68364 -0.72910148
3.4080343 24.753407 -0.60184532
13.742619 24.690716 -0.69988734
13.806414 24.728653 -0.6355443
-0.63730377 24.984257 -0.79800284
-0.57335955 24.886036 -0.79568225
-0.35136819 24.895222 -0.73264384
2.7884088 24.87924 -0.66377634
2.8472147 24.93479 -0.6120733
3.1451602 24.875874 -0.65106785
3.3482676 24.925022 -0.62189066
3.4229295 24.889633 -0.60546392
13.745268 24.83638 -0.64266342
13.806269 24.898718 -0.66026479
3.5618145 -2.8292515 -0.48478681
3.6175489 -2.9041278 -0.54975623
6.5995426 -2.846143 -0.53981245
6.645411 -2.8728409 -0.56491721
6.8447938 -2.8480365 -0.49677679
-1.8653491 -2.6372323 -0.46890607
-1.4412448 -2.6264358 -0.45472166
-1.3136171 -2.6173017 -0.44854569
-1.1428112 -2.6255431 -0.44380689
-0.89712399 -2.6386895 -0.43741214
-0.68531096 -2.6260254 -0.43090582
-0.49123085 -2.6250193 -0.42431214
-0.29103902 -2.6161482 -0.41838425
-0.073348343 -2.6250873 -0.40909523
0.057489157 -2.6409454 -0.40083593
0.21692228 -2.605794 -0.58501047
2.0555124 -2.6009541 -0.59542513
3.5551498 -2.7331748 -0.47932577
3.6229165 -2.7116416 -0.53561455
6.5961885 -2.6769562 -0.50143504
6.6246758 -2.6573451 -0.56306452
6.8345246 -2.6965411 -0.4911854
-2.0012078 -2.4208298 -0.44328061
-1.9753982 -2.4163077 -0.55050528
-1.7207067 -2.4401803 -0.55532742
-1.4554039 -2.4332006 -0.53463829
-1.3587999 -2.429117 -0.50437778
-1.1144779 -2.4361115 -0.54347891
-0.92827344 -2.4554591 -0.50723875
-0.67033756 -2.4360042 -0.52345502
-0.52654737 -2.4300294 -0.5318895
-0.35040846 -2.430943 -0.50233698
-0.10881673 -2.4130428 -0.54497486
0.12750205 -2.4130878 -0.54587108
0.33119223 -2.4282255 -0.54666007
0.56525004 -2.4425111 -0.53322983
0.70213568 -2.4279296 -0.48014909
0.94103307 -2.4487252 -0.52176392
1.1348926 -2.4108455 -0.53674781
1.3357227 -2.414696 -0.5434289
1.5685356 -2.4186153 -0.57406831
1.6773237 -2.4471319 -0.58267796
1.9578128 -2.4079895 -0.59495556
2.1136703 -2.4042807 -0.59800452
2.270092 -2.4089537 -0.59195584
2.5504961 -2.4234152 -0.58100748
2.638917 -2.4115744 -0.58343804
2.8543458 -2.4172654 -0.53239483
3.010294 -2.4166131 -0.507954
3.3724327 -2.4073119 -0.43232131
3.5454078 -2.4292636 -0.59348047
3.6150429 -2.4207528 -0.56054378
6.5949306 -2.4995732 -0.47885165
6.6230316 -2.5691638 -0.58727944
6.9523516 -2.4528265 -0.57869673
7.1323276 -2.4119201 -0.58687675
7.2537656 -2.4078546 -0.59394497
7.4770885 -2.4287271 -0.59170783
7.6113958 -2.418714 -0.5859549
7.9856968 -2.4149895 -0.5957396
8.0165997 -2.4099979 -0.59178555
8.3918085 -2.4051299 -0.45018435
8.5526066 -2.4096444 -0.52671456
8.6488419 -2.5078702 -0.55395186
8.8286219 -2.4074192 -0.47239864
10.307973 -2.4363935 -0.54502887
10.571172 -2.4083986 -0.44760928
10.752644 -2.4062078 -0.43033791
10.915548 -2.4082088 -0.44564939
11.141287 -2.4025712 -0.49365175
11.265482 -2.4097896 -0.45012349
11.561557 -2.4218402 -0.54938823
11.673744 -2.417388 -0.41981664
11.960583 -2.4117455 -0.40762135
12.081698 -2.4112308 -0.40794626
12.23224 -2.411694 -0.43001628
12.462731 -2.4082363 -0.42987108
12.760368 -2.4023819 -0.40565306
12.929104 -2.4018574 -0.40367752
13.132538 -2.4097486 -0.40146881
13.359557 -2.4039202 -0.40440118
13.509867 -2.4077802 -0.40798172
13.698688 -2.4125419 -0.41191679
13.844049 -2.4135625 -0.41980714
14.093766 -2.4098916 -0.42413962
14.367853 -2.4313838 -0.43200362
14.478642 -2.4109888 -0.42800111
14.702436 -2.4456348 -0.49321371
14.882964 -2.4267063 -0.43907362
-2.0525966 -2.3829513 -0.4416877
-1.9729135 -2.3428538 -0.54383659
-1.6544175 -2.3875055 -0.43369907
-1.5271039 -2.3936505 -0.50422764
-1.3100141 -2.394702 -0.43142083
-1.1435647 -2.3822551 -0.43260741
-0.92773235 -2.3874199 -0.43336549
-0.72088671 -2.3898246 -0.42868292
-0.50496572 -2.3933501 -0.43130416
-0.31488645 -2.3872323 -0.50374323
-0.10029159 -2.3964026 -0.43152389
0.14121203 -2.3977265 -0.55000269
0.34681228 -2.3930194 -0.57319045
0.55546153 -2.3911438 -0.51282066
0.6752705 -2.3906143 -0.46132508
0.96206295 -2.3906598 -0.45658499
1.0522863 -2.3898754 -0.50017142
1.2753128 -2.3904395 -0.45051908
1.5487366 -2.3916132 -0.55022722
1.7494419 -2.3958325 -0.55261272
1.9464748 -2.3868935 -0.58160633
2.0917599 -2.3906622 -0.59100986
2.2785418 -2.3887081 -0.58041626
2.4602718 -2.3963442 -0.50608873
2.641274 -2.3727469 -0.59134209
2.857903 -2.2496388 -0.57169628
3.036093 -2.2516553 -0.56236005
3.2576609 -2.2569516 -0.57443601
3.5599763 -2.3939571 -0.52610677
3.6124678 -2.3830545 -0.5630399
6.5899296 -2.2951486 -0.5952698
6.6162705 -2.3289573 -0.56492925
6.9103594 -2.3938994 -0.58047605
7.0640965 -2.3910792 -0.59066176
7.336637 -2.3632469 -0.59244925
7.4420624 -2.2594891 -0.59792519
7.6625309 -2.2417274 -0.58449847
7.8901892 -2.3700595 -0.58970523
8.0245514 -2.3847327 -0.58763945
8.3459263 -2.2183771 -0.45374852
8.5736752 -2.2687564 -0.53903723
8.6414852 -2.3437319 -0.58929312
8.9492674 -2.2550688 -0.43100047
9.0576134 -2.2023695 -0.44199318
9.3499851 -2.2023985 -0.43690181
9.4779892 -2.2009006 -0.44392562
9.6387043 -2.2028279 -0.43096316
9.9232082 -2.2385454 -0.42584366
10.057524 -2.2880011 -0.44324988
10.35726 -2.2963462 -0.43062127
10.550447 -2.3861699 -0.44340223
10.755207 -2.3913431 -0.43670654
10.918667 -2.3914537 -0.4436937
11.11841 -2.3853145 -0.50512326
11.226765 -2.3889506 -0.52941912
11.5539 -2.394876 -0.57723653
11.694141 -2.3907967 -0.58314598
11.901414 -2.3933024 -0.41176894
12.109211 -2.3807778 -0.40141371
12.291828 -2.3681338 -0.40096799
12.567306 -2.3891454 -0.40373826
12.739224 -2.3880997 -0.40181485
12.976705 -2.3907213 -0.40114921
13.146515 -2.3937693 -0.40172172
13.280876 -2.3934038 -0.40314981
13.520959 -2.3991234 -0.41140762
13.74232 -2.3989701 -0.41297907
13.9144 -2.3848972 -0.42782289
14.084764 -2.3806129 -0.41973889
14.225071 -2.3661304 -0.42314255
14.506636 -2.3912535 -0.43184727
14.614753 -2.3658712 -0.44101614
14.897947 -2.3898816 -0.43778837
-2.0144238 -2.0626185 -0.41743708
-1.9708908 -2.0814195 -0.55911958
-1.6950781 -2.07026 -0.58573723
-1.5227343 -2.1146743 -0.58048552
-1.068786 -2.0932813 -0.58826953
-0.98795903 -2.0817776 -0.59286761
-0.63231087 -2.0551176 -0.57383984
0.23212814 -2.0770435 -0.58425331
0.48581886 -2.0064716 -0.59262812
2.5510447 -2.1831596 -0.58145368
2.7220635 -2.0314312 -0.59796751
2.9009693 -2.0799217 -0.59470779
3.1489286 -2.1157212 -0.59286106
3.2328663 -2.1843519 -0.553653
3.4109092 -2.1718361 -0.51165485
6.594142 -2.1550155 -0.46259573
6.619319 -2.1818013 -0.55067998
6.830977 -2.0956483 -0.47481123
7.3930683 -2.1265678 -0.54842031
7.4478111 -2.1076238 -0.59437352
7.6506538 -2.1394129 -0.56728899
7.8603334 -2.1329854 -0.49880764
8.0983648 -2.1256227 -0.47809559
8.2655334 -2.1056495 -0.52402973
8.4822798 -2.0831199 -0.47279224
8.6227312 -2.0243778 -0.48004761
8.8754044 -2.1380904 -0.53807843
9.1050739 -2.1464682 -0.50278747
9.3793526 -2.1669865 -0.49706149
9.4943962 -2.1498437 -0.52649921
9.6542263 -2.1582053 -0.51591408
9.8904533 -2.158226 -0.52820295
10.046373 -2.1499476 -0.53703797
10.347621 -2.070358 -0.53243411
10.402033 -2.1172304 -0.48773813
10.61899 -2.1658466 -0.45649242
13.92836 -2.1192398 -0.4167369
14.098951 -2.1149821 -0.51359367
14.224618 -2.1572452 -0.58135676
-2.0124645 -1.9136358 -0.41982195
-1.9717271 -1.8832704 -0.57970041
-1.7511916 -1.8844559 -0.58696675
-1.0625848 -1.9102165 -0.59219283
-0.94522858 -1.9518917 -0.57235616
0.043037415 -1.9990833 -0.59879011
0.55867124 -1.9829977 -0.59535974
0.79634476 -1.9731202 -0.59966242
0.91682357 -1.8988134 -0.59712625
1.0277542 -1.8733212 -0.59639156
2.5829766 -1.9625127 -0.57132059
2.7313092 -1.9696069 -0.57902348
2.9650674 -1.993806 -0.5944109
3.0458813 -1.9936457 -0.59154332
3.2385256 -1.960166 -0.5691182
3.416559 -1.874896 -0.48239064
3.6593394 -1.8441672 -0.50298309
3.9857159 -1.8216068 -0.53554392
4.5641427 -1.8093929 -0.42623571
7.3884869 -1.8275911 -0.55067068
7.4445257 -1.8825556 -0.59737957
7.6773977 -1.8864497 -0.5773437
7.8468008 -1.954607 -0.46513444
8.1563663 -1.8613082 -0.48319641
8.2406235 -1.8993295 -0.48247242
8.5602837 -1.8664727 -0.52277255
8.6276989 -1.8014057 -0.52414435
8.857728 -1.902362 -0.48859245
9.1412325 -1.8368874 -0.49785274
9.2342167 -1.9172335 -0.50081182
9.4575882 -1.959138 -0.49958137
9.6652699 -1.8189511 -0.50937331
9.8469563 -1.9690158 -0.51924992
10.09975 -1.9155782 -0.5040738
10.291125 -1.8524811 -0.50984722
10.415544 -1.8533289 -0.45184714
13.958104 -1.8439704 -0.41226292
14.035675 -1.8107486 -0.41352487
14.208653 -1.9301137 -0.58047771
-2.0102417 -1.7510513 -0.56596678
-1.9854549 -1.7339648 -0.56326991
-1.7664915 -1.7486744 -0.59150428
-1.2337561 -1.6514276 -0.57200098
-1.1438578 -1.6910766 -0.59503621
-0.95194244 -1.6917965 -0.57173055
-0.7816782 -1.6536752 -0.57804251
0.86497068 -1.7381489 -0.59838581
1.0478492 -1.7138543 -0.59532285
1.249299 -1.7987647 -0.59332287
2.5677142 -1.742218 -0.49440563
2.7053809 -1.7595913 -0.56965744
2.8790362 -1.6971231 -0.4211418
3.1198993 -1.6320345 -0.56180334
3.2950146 -1.6897907 -0.52542812
3.428129 -1.725377 -0.4748334
3.6982174 -1.7135757 -0.50285256
3.9416802 -1.6964612 -0.52886569
4.0191193 -1.7148745 -0.53542471
4.2350078 -1.6867172 -0.55738944
4.5769768 -1.6824589 -0.53922659
4.6202645 -1.6793015 -0.4698095
7.3871212 -1.7680293 -0.57441974
7.4300575 -1.7881976 -0.5563724
7.6669493 -1.6312754 -0.58982623
7.8151336 -1.6834047 -0.55817473
8.0947943 -1.6819502 -0.55698836
8.277832 -1.6860009 -0.59571576
8.5807095 -1.7121934 -0.54512566
8.6397028 -1.6412306 -0.59631872
8.9176102 -1.6676761 -0.55920994
9.1077385 -1.662692 -0.56571865
9.2464771 -1.6584597 -0.5755688
9.4193726 -1.6620178 -0.5789597
9.7114315 -1.6634086 -0.58815753
9.8434277 -1.6581962 -0.57663703
10.09087 -1.6510525 -0.5905332
10.36935 -1.6248462 -0.59401393
10.402174 -1.6179769 -0.55515087
10.616703 -1.6641207 -0.57558376
13.978143 -1.78671 -0.41750222
14.042498 -1.7841203 -0.41307646
14.204155 -1.6804624 -0.57627761
-2.0111046 -1.4629757 -0.52930433
-1.9887156 -1.4949696 -0.56402862
-1.7175469 -1.5597957 -0.58520913
-1.2289995 -1.4946829 -0.58978909
-1.191503 -1.5392336 -0.59745145
0.70310324 -1.508642 -0.59913206
0.90970802 -1.4777131 -0.59602463
1.0792007 -1.4700787 -0.59417617
2.5891693 -1.5972327 -0.58691418
2.665216 -1.5494543 -0.48529205
2.8537958 -1.5040245 -0.44895586
3.1180699 -1.5420086 -0.42658919
3.2385511 -1.5944092 -0.57585549
3.4440815 -1.5504546 -0.46743831
3.7074852 -1.5579491 -0.49867851
3.9396923 -1.5471652 -0.52223039
4.0455461 -1.5386107 -0.52959454
4.2271919 -1.5170012 -0.54908115
4.4932609 -1.5411677 -0.45317677
4.7177501 -1.5685015 -0.43496525
4.8267198 -1.473834 -0.441531
7.5998116 -1.5993292 -0.57360041
7.6831102 -1.5795561 -0.52799106
7.8958311 -1.5499759 -0.52784872
8.0520678 -1.5051459 -0.52773976
8.3366871 -1.5460144 -0.56059277
8.4580421 -1.4912813 -0.54963243
8.7033653 -1.5576298 -0.57597816
8.8227243 -1.4370711 -0.5631547
9.0917549 -1.5218139 -0.50067031
9.2713852 -1.5827047 -0.55276155
9.4791632 -1.5841255 -0.50686693
9.6454411 -1.5942552 -0.50209093
9.8921375 -1.5972941 -0.48208952
10.146399 -1.5953964 -0.52421707
10.337883 -1.5878358 -0.56956649
10.412005 -1.5790299 -0.56302267
14.095782 -1.4774696 -0.59759974
14.205464 -1.4908524 -0.57300949
-2.0158608 -1.3041284 -0.53587806
-1.9888681 -1.2761337 -0.56064099
-1.72574 -1.3099022 -0.58507311
-1.2356052 -1.2917471 -0.59779555
-1.1715512 -1.2922738 -0.57978415
-0.92901516 -1.2077414 -0.58285195
0.85955334 -1.3052257 -0.59970474
8.4851303 -1.3811016 -0.55465937
8.9213333 -1.2316093 -0.574184
9.053916 -1.3693128 -0.46489823
9.9223022 -1.2560112 -0.47789511
10.167969 -1.3159266 -0.52481478
10.241335 -1.3634121 -0.44847339
10.426745 -1.3699398 -0.42251253
14.094129 -1.2771584 -0.59897804
14.21175 -1.255173 -0.56719029
-2.0091834 -1.0959953 -0.51207703
-1.9928153 -1.106091 -0.54906511
0.95627975 -1.1612306 -0.5943436
8.9334688 -1.148137 -0.59604764
9.0784836 -1.033 -0.58237028
9.3397427 -1.1239402 -0.57763487
9.4972401 -1.0857701 -0.58174038
9.6635418 -1.0775719 -0.59253651
9.8880692 -1.0561166 -0.59870058
10.065553 -1.0280809 -0.59772724
10.206043 -1.0370433 -0.51270223
10.468088 -1.0268444 -0.59713775
10.749402 -1.0231044 -0.59226006
10.851288 -1.0177295 -0.59218597
11.116297 -1.0229049 -0.59751475
11.274132 -1.0153186 -0.59542274
11.585812 -1.0077697 -0.59480691
11.611326 -1.004058 -0.56193745
13.986082 -1.0322205 -0.42624289
14.094682 -1.0551262 -0.41208243
14.206412 -1.1290956 -0.56517678
-2.0039151 -0.88680029 -0.53361762
-1.9919437 -0.90401345 -0.5473479
8.9580917 -0.86650383 -0.59836602
9.0452805 -0.96613199 -0.57999891
9.2807674 -0.92129248 -0.57701552
9.5166292 -0.9115231 -0.58152753
9.7242393 -0.84173656 -0.59426576
9.8327427 -0.89548975 -0.59750545
10.081776 -0.96609825 -0.59519964
10.350932 -0.95111674 -0.44434655
10.454567 -0.83793354 -0.41058066
10.730389 -0.86162227 -0.58772427
10.863798 -0.89333713 -0.59663004
11.069218 -0.95934379 -0.59559572
11.265682 -0.99457991 -0.59479356
11.593843 -0.9755975 -0.58003128
11.60205 -0.98425031 -0.59513664
13.989137 -0.96835375 -0.40756845
14.022951 -0.94947541 -0.40395564
14.20609 -0.83430499 -0.56046975
-2.0036683 -0.70722258 -0.50352317
-1.9953361 -0.69798201 -0.53797764
8.9267311 -0.6680367 -0.59824049
9.0825043 -0.64188355 -0.5968318
9.278862 -0.72588062 -0.58607668
9.451767 -0.7287631 -0.59493685
9.6359138 -0.71490651 -0.59630382
9.9049358 -0.64584625 -0.59607387
10.052351 -0.62812126 -0.59664792
10.366462 -0.69565874 -0.58328432
10.464302 -0.64993507 -0.58708704
10.661769 -0.6486063 -0.58522224
10.852674 -0.65905696 -0.58795595
11.152785 -0.64887261 -0.5974409
11.293509 -0.68610781 -0.58693361
11.587334 -0.69694811 -0.43703026
11.643465 -0.70012373 -0.41475278
14.095607 -0.66984206 -0.59803778
14.207901 -0.68644285 -0.55925542
-2.002898 -0.48780859 -0.52124423
-1.9887791 -0.46011537 -0.56774974
8.9586601 -0.59483916 -0.55983973
9.08605 -0.50471818 -0.57842922
9.2440472 -0.55538803 -0.59409583
9.5499353 -0.59650427 -0.59599614
9.6728973 -0.59328151 -0.59917557
9.8689232 -0.58426523 -0.5972476
10.05389 -0.59641027 -0.56633615
10.383026 -0.54280722 -0.55156422
10.45704 -0.5451898 -0.5975979
10.673012 -0.50492418 -0.55432665
10.934649 -0.53706431 -0.59722841
11.146692 -0.55863982 -0.59619647
11.271867 -0.56028974 -0.59890079
11.560738 -0.54156774 -0.59524155
